X,Y,Z
25.787595748901367,-52.03947830200195,4.4327229261398315e-05
19.766708374023438,-51.473934173583984,-0.9624102711677551
22.270551681518555,-44.94179153442383,-0.8754522204399109
27.789154052734375,-44.97048568725586,-0.9226871728897095
16.832509994506836,-60.068275451660156,-2.1783804893493652
17.85852813720703,-46.504398345947266,-1.739547848701477
22.27129554748535,-44.943233489990234,-1.7515368461608887
27.78990936279297,-44.972015380859375,-1.8460437059402466
33.995121002197266,-45.00440979003906,-1.9695099592208862
15.319660186767578,-54.66967010498047,-2.9754257202148438
17.24907112121582,-44.918434143066406,-2.5216262340545654
22.272037506103516,-44.944679260253906,-2.628735303878784
27.790666580200195,-44.973541259765625,-2.770590305328369
33.99638748168945,-45.00605010986328,-2.955885171890259
49.757320404052734,-574.8436279296875,-40.34728240966797
103.10811614990234,-567.355224609375,-40.32314682006836
14.356765747070312,-51.23332595825195,-3.720526695251465
17.249805450439453,-44.9198112487793,-3.364675521850586
22.272783279418945,-44.94611740112305,-3.5075972080230713
27.791913986206055,-44.97507858276367,-3.6968913078308105
33.997650146484375,-45.00765609741211,-3.9441370964050293
39.68108367919922,-458.4299011230469,-40.25740051269531
11.789530754089355,-64.86727142333984,-5.768064022064209
13.506041526794434,-48.19648361206055,-4.379011631011963
17.250539779663086,-44.92121887207031,-4.2098307609558105
22.273529052734375,-44.94755935668945,-4.388671398162842
27.79267120361328,-44.976600646972656,-4.625512599945068
33.99891662597656,-45.0092887878418,-4.934891223907471
32.98139953613281,-381.0304870605469,-40.1976432800293
11.125914573669434,-61.2152214050293,-6.539319038391113
12.748320579528809,-45.49175262451172,-4.965495586395264
17.25078773498535,-44.922584533691406,-5.057640552520752
22.274272918701172,-44.94902038574219,-5.272491931915283
27.793920516967773,-44.97813034057617,-5.557047367095947
34.000179290771484,-45.01095199584961,-5.928743839263916
28.20241355895996,-325.8181457519531,-40.15501403808594
10.530941009521484,-57.94129180908203,-7.230775833129883
12.582083702087402,-44.89946365356445,-5.725255489349365
17.251522064208984,-44.923988342285156,-5.908609390258789
15.094223022460938,-30.4583797454834,-4.173748970031738
17.87002944946289,-28.9174861907959,-4.173752307891846
20.489683151245117,-27.12432098388672,-4.173744201660156
