X,Y,Z
-23.09267807006836,29.411840438842773,5.255527973175049
-23.085111618041992,23.803739547729492,4.660324573516846
-23.079273223876953,19.293001174926758,4.227733135223389
-23.075178146362305,15.511228561401367,3.907703161239624
-23.072237014770508,12.228677749633789,3.6699788570404053
-23.083942413330078,29.400659561157227,4.589784145355225
-23.07744598388672,23.795703887939453,4.0701584815979
-23.072162628173828,19.287124633789062,3.6924688816070557
-23.068599700927734,15.506816864013672,3.4130280017852783
-23.06569480895996,12.225440979003906,3.2054555416107178
-23.07520866394043,29.38956642150879,3.927396774291992
-23.069786071777344,23.787755966186523,3.4829068183898926
-23.065053939819336,19.281246185302734,3.1597986221313477
-23.06202507019043,15.502463340759277,2.920748710632324
-23.059640884399414,12.222222328186035,2.7431600093841553
-23.066478729248047,29.378503799438477,3.2679240703582764
-23.061635971069336,23.779817581176758,2.8982036113739014
-23.05843162536621,19.275386810302734,2.6294174194335938
-23.055450439453125,15.498140335083008,2.430544137954712
-23.053586959838867,12.21900463104248,2.2828023433685303
-23.05823516845703,29.367456436157227,2.6109538078308105
-23.05397605895996,23.771902084350586,2.315666913986206
-23.05132293701172,19.26959800720215,2.1009738445281982
-23.049362182617188,15.493806838989258,1.9421097040176392
-23.047536849975586,12.215814590454102,1.8240923881530762
-23.04950714111328,29.356483459472656,1.9561045169830322
-23.046316146850586,23.764013290405273,1.7349307537078857
-23.04421615600586,19.263776779174805,1.5741325616836548
-23.042789459228516,15.489480972290039,1.455140233039856
-23.041484832763672,12.212624549865723,1.3667407035827637
-23.040781021118164,29.345508575439453,1.302903175354004
-23.03865623474121,23.756153106689453,1.1556442975997925
-23.037595748901367,19.258005142211914,1.0485730171203613
-23.036216735839844,15.485217094421387,0.9693304300308228
-23.03543472290039,12.209433555603027,0.9104570150375366
-23.03205680847168,29.3345947265625,0.6510142087936401
-23.0314884185791,23.74828338623047,0.5774562358856201
-23.030488967895508,19.252214431762695,0.5239595174789429
-23.03013038635254,15.480880737304688,0.484375
-23.02987289428711,12.206231117248535,0.4549667239189148
-23.02381706237793,29.323637008666992,-5.191192030906677e-06
-23.023828506469727,23.740421295166016,-1.4503952115774155e-05
-23.02387237548828,19.246444702148438,-1.3154465705156326e-05
-23.0235595703125,15.476617813110352,-1.5698140487074852e-05
-23.023822784423828,12.203069686889648,-4.668239853344858e-06
-28.26938247680664,44.9736442565918,-0.9288588762283325
-23.015090942382812,29.312753677368164,-0.6505361795425415
-23.016172409057617,23.732593536376953,-0.577088475227356
-23.016765594482422,19.240684509277344,-0.5236653089523315
-23.017475128173828,15.472339630126953,-0.4841166138648987
-23.017770767211914,12.199908256530762,-0.45473191142082214
-28.2696475982666,44.97395324707031,-1.8566696643829346
-23.006366729736328,29.301837921142578,-1.3009908199310303
-23.008516311645508,23.724763870239258,-1.1541320085525513
-23.009658813476562,19.234922409057617,-1.0473326444625854
-23.010902404785156,15.468045234680176,-0.9682784676551819
-23.011720657348633,12.196718215942383,-0.9095202088356018
-28.26991081237793,44.97425842285156,-2.785640239715576
-22.998130798339844,29.290943145751953,-1.951735496520996
-23.0008602142334,23.716934204101562,-1.731511116027832
-23.003042221069336,19.229150772094727,-1.571320652961731
-23.004331588745117,15.463750839233398,-1.4527455568313599
-23.00567054748535,12.193557739257812,-1.364613652229309
-28.270174026489258,44.97456741333008,-3.7163193225860596
-22.989404678344727,29.279996871948242,-2.6031973361968994
-22.993202209472656,23.709074020385742,-2.3095617294311523
-22.995935440063477,19.223360061645508,-2.095949411392212
-22.998247146606445,15.459474563598633,-1.937822937965393
-22.99962043762207,12.190366744995117,-1.8203022480010986
-28.270437240600586,44.974876403808594,-4.649287700653076
-22.980676651000977,29.269054412841797,-3.2557575702667236
-22.985544204711914,23.701217651367188,-2.88863468170166
-22.989316940307617,19.21759033203125,-2.6215548515319824
-22.99167251586914,15.45514965057373,-2.423815965652466
-22.99357032775879,12.187176704406738,-2.276860475540161
-28.27069854736328,44.97520065307617,-5.585109233856201
-22.971948623657227,29.258047103881836,-3.9098286628723145
-22.97788429260254,23.693296432495117,-3.4690959453582764
-22.982210159301758,19.211801528930664,-3.1484415531158447
-22.98509979248047,15.450855255126953,-2.911029577255249
-22.987518310546875,12.18398666381836,-2.7345786094665527
-18.089956283569336,28.77854347229004,-4.173743724822998
-20.991403579711914,26.735624313354492,-4.173740386962891
-22.970226287841797,23.685407638549805,-4.051297187805176
-22.975101470947266,19.205982208251953,-3.6769461631774902
-22.979015350341797,15.446520805358887,-3.3997690677642822
-22.981468200683594,12.18079662322998,-3.1937458515167236
