X,Y,Z
-23.09031105041504,27.433115005493164,5.0393218994140625
-23.081735610961914,27.423128128051758,4.401035785675049
-23.073163986206055,27.41317367553711,3.765939474105835
-23.065078735351562,27.40327262878418,3.1336350440979004
-23.056509017944336,27.39341163635254,2.503710985183716
-23.048425674438477,27.383604049682617,1.8757859468460083
-23.04034423828125,27.373796463012695,1.2494323253631592
-23.031776428222656,27.364028930664062,0.6242996454238892
-23.998868942260742,55.30514144897461,0.0033364295959472656
-24.937700271606445,44.98774719238281,0.0033356305211782455
-23.02369499206543,27.3542537689209,6.080605089664459e-06
-17.781715393066406,55.00383377075195,-1.005693793296814
-19.523462295532227,44.992347717285156,-0.8527764678001404
-24.937114715576172,44.987388610839844,-0.8945066332817078
-23.015615463256836,27.3444766998291,-0.623860239982605
-15.808595657348633,48.900299072265625,-1.7913312911987305
-19.523366928100586,44.99199295043945,-1.7093743085861206
-24.937013626098633,44.987003326416016,-1.792883038520813
-30.965036392211914,44.98143768310547,-1.903680682182312
-23.007047653198242,27.334739685058594,-1.247650146484375
-13.133831024169922,59.874786376953125,-3.20920467376709
-14.546233177185059,44.996212005615234,-2.475003719329834
-19.523271560668945,44.99162292480469,-2.5670249462127686
-24.936914443969727,44.98661804199219,-2.6923274993896484
-30.96444320678711,44.98106002807617,-2.8586061000823975
-22.99896812438965,27.324962615966797,-1.8717607259750366
-68.28585815429688,570.129150390625,-40.152305603027344
-12.146798133850098,55.37578201293945,-3.9610114097595215
-14.546142578125,44.99586868286133,-3.303433895111084
-19.523178100585938,44.991268157958984,-3.426232099533081
-24.936813354492188,44.98624801635742,-3.5934200286865234
-30.964336395263672,44.98065185546875,-3.8152711391448975
-22.990886688232422,27.315187454223633,-2.4965577125549316
-54.51750183105469,455.1748046875,-40.10731887817383
-11.296180725097656,51.496734619140625,-4.609200477600098
-14.546050071716309,44.99551010131836,-4.133893013000488
-19.523080825805664,44.99089813232422,-4.2875142097473145
-24.93671417236328,44.98585891723633,-4.496694087982178
-30.964229583740234,44.98024368286133,-4.774270534515381
-22.982805252075195,27.305377960205078,-3.1224381923675537
-45.34646224975586,378.6037292480469,-40.07735824584961
-10.554548263549805,48.11590576171875,-5.1741251945495605
-14.545957565307617,44.99516296386719,-4.966870307922363
-19.522987365722656,44.99053955078125,-5.151421070098877
-24.936126708984375,44.98549270629883,-5.40271520614624
-30.96363639831543,44.97983932495117,-5.736169338226318
-22.97423553466797,27.295549392700195,-3.749783515930176
-38.796207427978516,323.9137268066406,-40.05595397949219
-9.9973783493042,45.576595306396484,-5.7258687019348145
-14.545866012573242,44.99481964111328,-5.802899360656738
-19.522890090942383,44.99016571044922,-6.0185017585754395
-16.480751037597656,29.730220794677734,-4.173742771148682
-19.27557373046875,27.99941062927246,-4.173746109008789
-21.889644622802734,26.006786346435547,-4.173737525939941
