X,Y,Z
108.83929443359375,-18.9853572845459,15.527587890625
108.78471374511719,-7.091793060302734,15.321366310119629
108.20823669433594,-18.87521743774414,13.487112998962402
108.16191864013672,-7.05120325088501,13.309009552001953
107.58647155761719,-18.766845703125,11.478737831115723
107.54890441894531,-7.011242866516113,11.328036308288574
106.97447967529297,-18.660045623779297,9.500541687011719
106.9451675415039,-6.971884727478027,9.376510620117188
106.37130737304688,-18.55479621887207,7.550662517547607
106.3497543334961,-6.933071613311768,7.452630996704102
105.8112564086914,-30.460254669189453,5.770657062530518
105.77596282958984,-18.45100975036621,5.627315998077393
105.76214599609375,-6.894775390625,5.554658889770508
105.20861053466797,-30.286827087402344,3.823281764984131
105.18843078613281,-18.348529815673828,3.7288386821746826
105.182373046875,-6.856995105743408,3.6809613704681396
104.61380004882812,-30.11549949645996,1.9002865552902222
104.6082534790039,-18.24733543395996,1.853613257408142
104.60944366455078,-6.819643497467041,1.8299366235733032
104.02584838867188,-29.94628143310547,8.505210280418396e-05
104.03441619873047,-18.147274017333984,6.823986768722534e-05
104.04335021972656,-6.782720565795898,7.398240268230438e-05
103.44425964355469,-29.778928756713867,-1.8788942098617554
103.46744537353516,-18.048311233520508,-1.833245873451233
103.4831314086914,-6.746231555938721,-1.8100758790969849
102.86903381347656,-29.613317489624023,-3.73810076713562
102.90584564208984,-17.950393676757812,-3.6477785110473633
102.92877197265625,-6.7100830078125,-3.6019320487976074
102.2996826171875,-29.449363708496094,-5.578999042510986
102.34963989257812,-17.853370666503906,-5.444902420043945
102.37930297851562,-6.674281120300293,-5.376837253570557
473.3217468261719,-325.9609069824219,-40.187164306640625
505.2252197265625,-273.049560546875,-40.158203125
531.1964111328125,-217.03904724121094,-40.12575912475586
101.7352294921875,-29.286911010742188,-7.40291690826416
101.79879760742188,-17.75726890563965,-7.225945949554443
101.83472442626953,-6.638763904571533,-7.13610315322876
377.67974853515625,-260.0953063964844,-40.120113372802734
403.1945495605469,-217.90689086914062,-40.09703826904297
423.9906311035156,-173.23606872558594,-40.07118225097656
101.17566680908203,-29.125843048095703,-9.211212158203125
101.25187683105469,-17.661914825439453,-8.992189407348633
101.29502868652344,-6.603560447692871,-8.880982398986816
314.0302734375,-216.2621612548828,-40.07549285888672
335.2783508300781,-181.20143127441406,-40.05632781982422
352.60919189453125,-144.07110595703125,-40.03484344482422
100.62052154541016,-28.96603775024414,-11.005165100097656
100.70985412597656,-17.567302703857422,-10.744884490966797
100.75924682617188,-6.56864595413208,-10.612723350524902
27.99622344970703,-19.279943466186523,-4.173741340637207
29.904918670654297,-16.16197967529297,-4.173750400543213
301.6396789550781,-123.24571990966797,-40.0088996887207
100.06977081298828,-28.807435989379883,-12.786027908325195
100.1712417602539,-17.473379135131836,-12.485252380371094
100.22689056396484,-6.533962726593018,-12.332488059997559
